# .PCD v0.7 - Point Cloud Data file format
VERSION 0.7
FIELDS x y z
SIZE 4 4 4
TYPE F F F
COUNT 1 1 1
WIDTH 1912
HEIGHT 1
VIEWPOINT 0 0 0 1 0 0 0
POINTS 1912
DATA ascii
-0.1425 -0.01375 -0.016758
-0.1425 -0.056718 -0.02082
-0.1425 -0.056718 -0.020312
-0.1425 -0.055 -0.020312
-0.1425 -0.055 -0.02082
-0.1425 -0.070469 -0.02082
-0.1425 -0.070469 -0.020312
-0.1425 -0.06875 -0.020312
-0.1425 -0.06875 -0.02082
-0.1425 -0.070469 -0.016758
-0.1425 -0.070469 -0.01625
-0.1425 -0.06875 -0.01625
-0.1425 -0.06875 -0.016758
-0.1425 -0.056718 -0.00457
-0.1425 -0.056718 -0.004062
-0.1425 -0.055 -0.004062
-0.1425 -0.055 -0.00457
-0.1425 -0.070469 -0.00457
-0.1425 -0.070469 -0.004062
-0.1425 -0.06875 -0.004062
-0.1425 -0.06875 -0.00457
-0.1425 -0.070469 -0.000508
-0.1425 -0.070469 0
-0.1425 -0.06875 0
-0.1425 -0.06875 -0.000508
-0.1425 -0.001719 0.01168
-0.1425 -0.001719 0.012187
-0.1425 0 0.012187
-0.1425 0 0.01168
-0.1425 -0.015468 0.01168
-0.1425 -0.015468 0.012187
-0.1425 -0.01375 0.012187
-0.1425 -0.01375 0.01168
-0.1425 -0.015468 0.015742
-0.1425 -0.015468 0.01625
-0.1425 -0.01375 0.01625
-0.1425 -0.01375 0.015742
-0.1425 -0.056718 0.01168
-0.1425 -0.056718 0.012187
-0.1425 -0.055 0.012187
-0.1425 -0.055 0.01168
-0.1425 -0.070469 0.01168
-0.1425 -0.070469 0.012187
-0.1425 -0.06875 0.012187
-0.1425 -0.06875 0.01168
-0.1425 -0.070469 0.015742
-0.1425 -0.070469 0.01625
-0.1425 -0.06875 0.01625
-0.1425 -0.06875 0.015742
-0.1425 -0.056718 0.027929
-0.1425 -0.056718 0.028437
-0.1425 -0.055 0.028437
-0.1425 -0.055 0.027929
-0.1425 -0.070469 0.027929
-0.1425 -0.070469 0.028437
-0.1425 -0.06875 0.028437
-0.1425 -0.06875 0.027929
-0.1425 -0.070469 0.031992
-0.1425 -0.070469 0.0325
-0.1425 -0.06875 0.0325
-0.1425 -0.06875 0.031992
-0.140273 0.11 0.02082
-0.140273 0.11 0.020312
-0.1425 0.11 0.020312
-0.1425 0.11 0.02082
-0.122461 0.11 0.02082
-0.122461 0.11 0.020312
-0.124688 0.11 0.020312
-0.124688 0.11 0.02082
-0.122461 0.11 0.016758
-0.122461 0.11 0.01625
-0.124688 0.11 0.01625
-0.124688 0.11 0.016758
-0.069024 0.11 0.02082
-0.069024 0.11 0.020312
-0.07125 0.11 0.020312
-0.07125 0.11 0.02082
-0.051211 0.11 0.02082
-0.051211 0.11 0.020312
-0.053438 0.11 0.020312
-0.053438 0.11 0.02082
-0.051211 0.11 0.016758
-0.051211 0.11 0.01625
-0.053438 0.11 0.01625
-0.053438 0.11 0.016758
-0.069024 0.11 0.00457
-0.069024 0.11 0.004062
-0.07125 0.11 0.004062
-0.07125 0.11 0.00457
-0.051211 0.11 0.00457
-0.051211 0.11 0.004062
-0.053438 0.11 0.004062
-0.053438 0.11 0.00457
-0.051211 0.11 0.000508
-0.051211 0.11 0
-0.053438 0.11 0
-0.053438 0.11 0.000508
0.002227 0.11 0.02082
0.002227 0.11 0.020312
0 0.11 0.020312
0 0.11 0.02082
0.020039 0.11 0.02082
0.020039 0.11 0.020312
0.017812 0.11 0.020312
0.017812 0.11 0.02082
0.020039 0.11 0.016758
0.020039 0.11 0.01625
0.017812 0.11 0.01625
0.017812 0.11 0.016758
0.073477 0.11 0.02082
0.073477 0.11 0.020312
0.07125 0.11 0.020312
0.07125 0.11 0.02082
0.091289 0.11 0.02082
0.091289 0.11 0.020312
0.089062 0.11 0.020312
0.089062 0.11 0.02082
0.091289 0.11 0.016758
0.091289 0.11 0.01625
0.089062 0.11 0.01625
0.089062 0.11 0.016758
0.073477 0.11 0.00457
0.073477 0.11 0.004062
0.07125 0.11 0.004062
0.07125 0.11 0.00457
0.091289 0.11 0.00457
0.091289 0.11 0.004062
0.089062 0.11 0.004062
0.089062 0.11 0.00457
0.091289 0.11 0.000508
0.091289 0.11 0
0.089062 0.11 0
0.089062 0.11 0.000508
0.002227 0.11 -0.01168
0.002227 0.11 -0.012187
0 0.11 -0.012187
0 0.11 -0.01168
0.020039 0.11 -0.01168
0.020039 0.11 -0.012187
0.017812 0.11 -0.012187
0.017812 0.11 -0.01168
0.020039 0.11 -0.015742
0.020039 0.11 -0.01625
0.017812 0.11 -0.01625
0.017812 0.11 -0.015742
0.073477 0.11 -0.01168
0.073477 0.11 -0.012187
0.07125 0.11 -0.012187
0.07125 0.11 -0.01168
0.091289 0.11 -0.01168
0.091289 0.11 -0.012187
0.089062 0.11 -0.012187
0.089062 0.11 -0.01168
0.091289 0.11 -0.015742
0.091289 0.11 -0.01625
0.089062 0.11 -0.01625
0.089062 0.11 -0.015742
0.073477 0.11 -0.027929
0.073477 0.11 -0.028437
0.07125 0.11 -0.028437
0.07125 0.11 -0.027929
0.091289 0.11 -0.027929
0.091289 0.11 -0.028437
0.089062 0.11 -0.028437
0.089062 0.11 -0.027929
0.091289 0.11 -0.031992
0.091289 0.11 -0.0325
0.089062 0.11 -0.0325
0.089062 0.11 -0.031992
-0.140273 0.070469 -0.0325
-0.140273 0.06875 -0.0325
-0.1425 0.06875 -0.0325
-0.1425 0.070469 -0.0325
-0.122461 0.070469 -0.0325
-0.122461 0.06875 -0.0325
-0.124688 0.06875 -0.0325
-0.124688 0.070469 -0.0325
-0.122461 0.056718 -0.0325
-0.122461 0.055 -0.0325
-0.124688 0.055 -0.0325
-0.124688 0.056718 -0.0325
-0.069024 0.070469 -0.0325
-0.069024 0.06875 -0.0325
-0.07125 0.06875 -0.0325
-0.07125 0.070469 -0.0325
-0.051211 0.070469 -0.0325
-0.051211 0.06875 -0.0325
-0.053438 0.06875 -0.0325
-0.053438 0.070469 -0.0325
-0.051211 0.056718 -0.0325
-0.051211 0.055 -0.0325
-0.053438 0.055 -0.0325
-0.053438 0.056718 -0.0325
-0.069024 0.015468 -0.0325
-0.069024 0.01375 -0.0325
-0.07125 0.01375 -0.0325
-0.07125 0.015468 -0.0325
-0.051211 0.015468 -0.0325
-0.051211 0.01375 -0.0325
-0.053438 0.01375 -0.0325
-0.053438 0.015468 -0.0325
-0.051211 0.001719 -0.0325
-0.051211 0 -0.0325
-0.053438 0 -0.0325
-0.053438 0.001719 -0.0325
0.002227 0.070469 -0.0325
0.002227 0.06875 -0.0325
0 0.06875 -0.0325
0 0.070469 -0.0325
0.020039 0.070469 -0.0325
0.020039 0.06875 -0.0325
0.017812 0.06875 -0.0325
0.017812 0.070469 -0.0325
0.020039 0.056718 -0.0325
0.020039 0.055 -0.0325
0.017812 0.055 -0.0325
0.017812 0.056718 -0.0325
0.073477 0.070469 -0.0325
0.073477 0.06875 -0.0325
0.07125 0.06875 -0.0325
0.07125 0.070469 -0.0325
0.091289 0.070469 -0.0325
0.091289 0.06875 -0.0325
0.089062 0.06875 -0.0325
0.089062 0.070469 -0.0325
0.091289 0.056718 -0.0325
0.091289 0.055 -0.0325
0.089062 0.055 -0.0325
0.089062 0.056718 -0.0325
0.073477 0.015468 -0.0325
0.073477 0.01375 -0.0325
0.07125 0.01375 -0.0325
0.07125 0.015468 -0.0325
0.091289 0.015468 -0.0325
0.091289 0.01375 -0.0325
0.089062 0.01375 -0.0325
0.089062 0.015468 -0.0325
0.091289 0.001719 -0.0325
0.091289 0 -0.0325
0.089062 0 -0.0325
0.089062 0.001719 -0.0325
0.002227 -0.039531 -0.0325
0.002227 -0.04125 -0.0325
0 -0.04125 -0.0325
0 -0.039531 -0.0325
0.020039 -0.039531 -0.0325
0.020039 -0.04125 -0.0325
0.017812 -0.04125 -0.0325
0.017812 -0.039531 -0.0325
0.020039 -0.053281 -0.0325
0.020039 -0.055 -0.0325
0.017812 -0.055 -0.0325
0.017812 -0.053281 -0.0325
0.073477 -0.039531 -0.0325
0.073477 -0.04125 -0.0325
0.07125 -0.04125 -0.0325
0.07125 -0.039531 -0.0325
0.091289 -0.039531 -0.0325
0.091289 -0.04125 -0.0325
0.089062 -0.04125 -0.0325
0.089062 -0.039531 -0.0325
0.091289 -0.053281 -0.0325
0.091289 -0.055 -0.0325
0.089062 -0.055 -0.0325
0.089062 -0.053281 -0.0325
0.073477 -0.094531 -0.0325
0.073477 -0.09625 -0.0325
0.07125 -0.09625 -0.0325
0.07125 -0.094531 -0.0325
0.091289 -0.094531 -0.0325
0.091289 -0.09625 -0.0325
0.089062 -0.09625 -0.0325
0.089062 -0.094531 -0.0325
0.091289 -0.108281 -0.0325
0.091289 -0.11 -0.0325
0.089062 -0.11 -0.0325
0.089062 -0.108281 -0.0325
-0.086836 -0.108281 0.0325
-0.089062 -0.108281 0.0325
-0.089062 -0.11 0.0325
-0.086836 -0.11 0.0325
-0.086836 -0.094531 0.0325
-0.089062 -0.094531 0.0325
-0.089062 -0.09625 0.0325
-0.086836 -0.09625 0.0325
-0.104649 -0.094531 0.0325
-0.106875 -0.094531 0.0325
-0.106875 -0.09625 0.0325
-0.104649 -0.09625 0.0325
-0.086836 -0.080781 0.0325
-0.089062 -0.080781 0.0325
-0.089062 -0.0825 0.0325
-0.086836 -0.0825 0.0325
-0.086836 -0.067031 0.0325
-0.089062 -0.067031 0.0325
-0.089062 -0.06875 0.0325
-0.086836 -0.06875 0.0325
-0.104649 -0.067031 0.0325
-0.106875 -0.067031 0.0325
-0.106875 -0.06875 0.0325
-0.104649 -0.06875 0.0325
-0.122461 -0.080781 0.0325
-0.124688 -0.080781 0.0325
-0.124688 -0.0825 0.0325
-0.122461 -0.0825 0.0325
-0.122461 -0.067031 0.0325
-0.124688 -0.067031 0.0325
-0.124688 -0.06875 0.0325
-0.122461 -0.06875 0.0325
-0.140273 -0.067031 0.0325
-0.1425 -0.067031 0.0325
-0.1425 -0.06875 0.0325
-0.140273 -0.06875 0.0325
0.1425 -0.108281 0.019805
0.1425 -0.108281 0.020312
0.1425 -0.11 0.020312
0.1425 -0.11 0.019805
0.1425 -0.094531 0.019805
0.1425 -0.094531 0.020312
0.1425 -0.09625 0.020312
0.1425 -0.09625 0.019805
0.1425 -0.094531 0.023867
0.1425 -0.094531 0.024375
0.1425 -0.09625 0.024375
0.1425 -0.09625 0.023867
0.1425 -0.080781 0.019805
0.1425 -0.080781 0.020312
0.1425 -0.0825 0.020312
0.1425 -0.0825 0.019805
0.1425 -0.067031 0.019805
0.1425 -0.067031 0.020312
0.1425 -0.06875 0.020312
0.1425 -0.06875 0.019805
0.1425 -0.067031 0.023867
0.1425 -0.067031 0.024375
0.1425 -0.06875 0.024375
0.1425 -0.06875 0.023867
0.1425 -0.080781 0.027929
0.1425 -0.080781 0.028437
0.1425 -0.0825 0.028437
0.1425 -0.0825 0.027929
0.1425 -0.067031 0.027929
0.1425 -0.067031 0.028437
0.1425 -0.06875 0.028437
0.1425 -0.06875 0.027929
0.1425 -0.067031 0.031992
0.1425 -0.067031 0.0325
0.1425 -0.06875 0.0325
0.1425 -0.06875 0.031992
-0.140273 -0.11 0.019805
-0.140273 -0.11 0.020312
-0.1425 -0.11 0.020312
-0.1425 -0.11 0.019805
-0.122461 -0.11 0.019805
-0.122461 -0.11 0.020312
-0.124688 -0.11 0.020312
-0.124688 -0.11 0.019805
-0.122461 -0.11 0.023867
-0.122461 -0.11 0.024375
-0.124688 -0.11 0.024375
-0.124688 -0.11 0.023867
-0.104649 -0.11 0.019805
-0.104649 -0.11 0.020312
-0.106875 -0.11 0.020312
-0.106875 -0.11 0.019805
-0.086836 -0.11 0.019805
-0.086836 -0.11 0.020312
-0.089062 -0.11 0.020312
-0.089062 -0.11 0.019805
-0.086836 -0.11 0.023867
-0.086836 -0.11 0.024375
-0.089062 -0.11 0.024375
-0.089062 -0.11 0.023867
-0.104649 -0.11 0.027929
-0.104649 -0.11 0.028437
-0.106875 -0.11 0.028437
-0.106875 -0.11 0.027929
-0.086836 -0.11 0.027929
-0.086836 -0.11 0.028437
-0.089062 -0.11 0.028437
-0.089062 -0.11 0.027929
-0.086836 -0.11 0.031992
-0.086836 -0.11 0.0325
-0.089062 -0.11 0.0325
-0.089062 -0.11 0.031992
-0.1425 0.108281 0.019805
-0.1425 0.108281 0.020312
-0.1425 0.11 0.020312
-0.1425 0.11 0.019805
-0.1425 0.094531 0.019805
-0.1425 0.094531 0.020312
-0.1425 0.09625 0.020312
-0.1425 0.09625 0.019805
-0.1425 0.094531 0.023867
-0.1425 0.094531 0.024375
-0.1425 0.09625 0.024375
-0.1425 0.09625 0.023867
-0.1425 0.080781 0.019805
-0.1425 0.080781 0.020312
-0.1425 0.0825 0.020312
-0.1425 0.0825 0.019805
-0.1425 0.067031 0.019805
-0.1425 0.067031 0.020312
-0.1425 0.06875 0.020312
-0.1425 0.06875 0.019805
-0.1425 0.067031 0.023867
-0.1425 0.067031 0.024375
-0.1425 0.06875 0.024375
-0.1425 0.06875 0.023867
-0.1425 0.080781 0.027929
-0.1425 0.080781 0.028437
-0.1425 0.0825 0.028437
-0.1425 0.0825 0.027929
-0.1425 0.067031 0.027929
-0.1425 0.067031 0.028437
-0.1425 0.06875 0.028437
-0.1425 0.06875 0.027929
-0.1425 0.067031 0.031992
-0.1425 0.067031 0.0325
-0.1425 0.06875 0.0325
-0.1425 0.06875 0.031992
-0.140273 0.11 -0.019805
-0.140273 0.11 -0.020312
-0.1425 0.11 -0.020312
-0.1425 0.11 -0.019805
-0.122461 0.11 -0.019805
-0.122461 0.11 -0.020312
-0.124688 0.11 -0.020312
-0.124688 0.11 -0.019805
-0.122461 0.11 -0.023867
-0.122461 0.11 -0.024375
-0.124688 0.11 -0.024375
-0.124688 0.11 -0.023867
-0.104649 0.11 -0.019805
-0.104649 0.11 -0.020312
-0.106875 0.11 -0.020312
-0.106875 0.11 -0.019805
-0.086836 0.11 -0.019805
-0.086836 0.11 -0.020312
-0.089062 0.11 -0.020312
-0.089062 0.11 -0.019805
-0.086836 0.11 -0.023867
-0.086836 0.11 -0.024375
-0.089062 0.11 -0.024375
-0.089062 0.11 -0.023867
-0.104649 0.11 -0.027929
-0.104649 0.11 -0.028437
-0.106875 0.11 -0.028437
-0.106875 0.11 -0.027929
-0.086836 0.11 -0.027929
-0.086836 0.11 -0.028437
-0.089062 0.11 -0.028437
-0.089062 0.11 -0.027929
-0.086836 0.11 -0.031992
-0.086836 0.11 -0.0325
-0.089062 0.11 -0.0325
-0.089062 0.11 -0.031992
-0.140273 -0.067031 -0.0325
-0.140273 -0.06875 -0.0325
-0.1425 -0.06875 -0.0325
-0.1425 -0.067031 -0.0325
-0.122461 -0.067031 -0.0325
-0.122461 -0.06875 -0.0325
-0.124688 -0.06875 -0.0325
-0.124688 -0.067031 -0.0325
-0.122461 -0.080781 -0.0325
-0.122461 -0.0825 -0.0325
-0.124688 -0.0825 -0.0325
-0.124688 -0.080781 -0.0325
-0.104649 -0.067031 -0.0325
-0.104649 -0.06875 -0.0325
-0.106875 -0.06875 -0.0325
-0.106875 -0.067031 -0.0325
-0.086836 -0.067031 -0.0325
-0.086836 -0.06875 -0.0325
-0.089062 -0.06875 -0.0325
-0.089062 -0.067031 -0.0325
-0.086836 -0.080781 -0.0325
-0.086836 -0.0825 -0.0325
-0.089062 -0.0825 -0.0325
-0.089062 -0.080781 -0.0325
-0.104649 -0.094531 -0.0325
-0.104649 -0.09625 -0.0325
-0.106875 -0.09625 -0.0325
-0.106875 -0.094531 -0.0325
-0.086836 -0.094531 -0.0325
-0.086836 -0.09625 -0.0325
-0.089062 -0.09625 -0.0325
-0.089062 -0.094531 -0.0325
-0.086836 -0.108281 -0.0325
-0.086836 -0.11 -0.0325
-0.089062 -0.11 -0.0325
-0.089062 -0.108281 -0.0325
0.055665 -0.108281 0.0325
0.053438 -0.108281 0.0325
0.053438 -0.11 0.0325
0.055665 -0.11 0.0325
0.055665 -0.094531 0.0325
0.053438 -0.094531 0.0325
0.053438 -0.09625 0.0325
0.055665 -0.09625 0.0325
0.037851 -0.094531 0.0325
0.035625 -0.094531 0.0325
0.035625 -0.09625 0.0325
0.037851 -0.09625 0.0325
0.055665 -0.080781 0.0325
0.053438 -0.080781 0.0325
0.053438 -0.0825 0.0325
0.055665 -0.0825 0.0325
0.055665 -0.067031 0.0325
0.053438 -0.067031 0.0325
0.053438 -0.06875 0.0325
0.055665 -0.06875 0.0325
0.037851 -0.067031 0.0325
0.035625 -0.067031 0.0325
0.035625 -0.06875 0.0325
0.037851 -0.06875 0.0325
0.020039 -0.080781 0.0325
0.017812 -0.080781 0.0325
0.017812 -0.0825 0.0325
0.020039 -0.0825 0.0325
0.020039 -0.067031 0.0325
0.017812 -0.067031 0.0325
0.017812 -0.06875 0.0325
0.020039 -0.06875 0.0325
0.002227 -0.067031 0.0325
0 -0.067031 0.0325
0 -0.06875 0.0325
0.002227 -0.06875 0.0325
0.055665 0.001719 0.0325
0.053438 0.001719 0.0325
0.053438 0 0.0325
0.055665 0 0.0325
0.055665 0.015468 0.0325
0.053438 0.015468 0.0325
0.053438 0.01375 0.0325
0.055665 0.01375 0.0325
0.037851 0.015468 0.0325
0.035625 0.015468 0.0325
0.035625 0.01375 0.0325
0.037851 0.01375 0.0325
0.055665 0.029218 0.0325
0.053438 0.029218 0.0325
0.053438 0.0275 0.0325
0.055665 0.0275 0.0325
0.055665 0.042969 0.0325
0.053438 0.042969 0.0325
0.053438 0.04125 0.0325
0.055665 0.04125 0.0325
0.037851 0.042969 0.0325
0.035625 0.042969 0.0325
0.035625 0.04125 0.0325
0.037851 0.04125 0.0325
0.020039 0.029218 0.0325
0.017812 0.029218 0.0325
0.017812 0.0275 0.0325
0.020039 0.0275 0.0325
0.020039 0.042969 0.0325
0.017812 0.042969 0.0325
0.017812 0.04125 0.0325
0.020039 0.04125 0.0325
0.002227 0.042969 0.0325
0 0.042969 0.0325
0 0.04125 0.0325
0.002227 0.04125 0.0325
-0.086836 0.001719 0.0325
-0.089062 0.001719 0.0325
-0.089062 0 0.0325
-0.086836 0 0.0325
-0.086836 0.015468 0.0325
-0.089062 0.015468 0.0325
-0.089062 0.01375 0.0325
-0.086836 0.01375 0.0325
-0.104649 0.015468 0.0325
-0.106875 0.015468 0.0325
-0.106875 0.01375 0.0325
-0.104649 0.01375 0.0325
-0.086836 0.029218 0.0325
-0.089062 0.029218 0.0325
-0.089062 0.0275 0.0325
-0.086836 0.0275 0.0325
-0.086836 0.042969 0.0325
-0.089062 0.042969 0.0325
-0.089062 0.04125 0.0325
-0.086836 0.04125 0.0325
-0.104649 0.042969 0.0325
-0.106875 0.042969 0.0325
-0.106875 0.04125 0.0325
-0.104649 0.04125 0.0325
-0.122461 0.029218 0.0325
-0.124688 0.029218 0.0325
-0.124688 0.0275 0.0325
-0.122461 0.0275 0.0325
-0.122461 0.042969 0.0325
-0.124688 0.042969 0.0325
-0.124688 0.04125 0.0325
-0.122461 0.04125 0.0325
-0.140273 0.042969 0.0325
-0.1425 0.042969 0.0325
-0.1425 0.04125 0.0325
-0.140273 0.04125 0.0325
0.1425 -0.108281 -0.012695
0.1425 -0.108281 -0.012187
0.1425 -0.11 -0.012187
0.1425 -0.11 -0.012695
0.1425 -0.094531 -0.012695
0.1425 -0.094531 -0.012187
0.1425 -0.09625 -0.012187
0.1425 -0.09625 -0.012695
0.1425 -0.094531 -0.008633
0.1425 -0.094531 -0.008125
0.1425 -0.09625 -0.008125
0.1425 -0.09625 -0.008633
0.1425 -0.080781 -0.012695
0.1425 -0.080781 -0.012187
0.1425 -0.0825 -0.012187
0.1425 -0.0825 -0.012695
0.1425 -0.067031 -0.012695
0.1425 -0.067031 -0.012187
0.1425 -0.06875 -0.012187
0.1425 -0.06875 -0.012695
0.1425 -0.067031 -0.008633
0.1425 -0.067031 -0.008125
0.1425 -0.06875 -0.008125
0.1425 -0.06875 -0.008633
0.1425 -0.080781 -0.00457
0.1425 -0.080781 -0.004062
0.1425 -0.0825 -0.004062
0.1425 -0.0825 -0.00457
0.1425 -0.067031 -0.00457
0.1425 -0.067031 -0.004062
0.1425 -0.06875 -0.004062
0.1425 -0.06875 -0.00457
0.1425 -0.067031 -0.000508
0.1425 -0.067031 0
0.1425 -0.06875 0
0.1425 -0.06875 -0.000508
0.1425 0.001719 -0.012695
0.1425 0.001719 -0.012187
0.1425 0 -0.012187
0.1425 0 -0.012695
0.1425 0.015468 -0.012695
0.1425 0.015468 -0.012187
0.1425 0.01375 -0.012187
0.1425 0.01375 -0.012695
0.1425 0.015468 -0.008633
0.1425 0.015468 -0.008125
0.1425 0.01375 -0.008125
0.1425 0.01375 -0.008633
0.1425 0.029218 -0.012695
0.1425 0.029218 -0.012187
0.1425 0.0275 -0.012187
0.1425 0.0275 -0.012695
0.1425 0.042969 -0.012695
0.1425 0.042969 -0.012187
0.1425 0.04125 -0.012187
0.1425 0.04125 -0.012695
0.1425 0.042969 -0.008633
0.1425 0.042969 -0.008125
0.1425 0.04125 -0.008125
0.1425 0.04125 -0.008633
0.1425 0.029218 -0.00457
0.1425 0.029218 -0.004062
0.1425 0.0275 -0.004062
0.1425 0.0275 -0.00457
0.1425 0.042969 -0.00457
0.1425 0.042969 -0.004062
0.1425 0.04125 -0.004062
0.1425 0.04125 -0.00457
0.1425 0.042969 -0.000508
0.1425 0.042969 0
0.1425 0.04125 0
0.1425 0.04125 -0.000508
0.1425 0.001719 0.019805
0.1425 0.001719 0.020312
0.1425 0 0.020312
0.1425 0 0.019805
0.1425 0.015468 0.019805
0.1425 0.015468 0.020312
0.1425 0.01375 0.020312
0.1425 0.01375 0.019805
0.1425 0.015468 0.023867
0.1425 0.015468 0.024375
0.1425 0.01375 0.024375
0.1425 0.01375 0.023867
0.1425 0.029218 0.019805
0.1425 0.029218 0.020312
0.1425 0.0275 0.020312
0.1425 0.0275 0.019805
0.1425 0.042969 0.019805
0.1425 0.042969 0.020312
0.1425 0.04125 0.020312
0.1425 0.04125 0.019805
0.1425 0.042969 0.023867
0.1425 0.042969 0.024375
0.1425 0.04125 0.024375
0.1425 0.04125 0.023867
0.1425 0.029218 0.027929
0.1425 0.029218 0.028437
0.1425 0.0275 0.028437
0.1425 0.0275 0.027929
0.1425 0.042969 0.027929
0.1425 0.042969 0.028437
0.1425 0.04125 0.028437
0.1425 0.04125 0.027929
0.1425 0.042969 0.031992
0.1425 0.042969 0.0325
0.1425 0.04125 0.0325
0.1425 0.04125 0.031992
-0.140273 -0.11 -0.012695
-0.140273 -0.11 -0.012187
-0.1425 -0.11 -0.012187
-0.1425 -0.11 -0.012695
-0.122461 -0.11 -0.012695
-0.122461 -0.11 -0.012187
-0.124688 -0.11 -0.012187
-0.124688 -0.11 -0.012695
-0.122461 -0.11 -0.008633
-0.122461 -0.11 -0.008125
-0.124688 -0.11 -0.008125
-0.124688 -0.11 -0.008633
-0.104649 -0.11 -0.012695
-0.104649 -0.11 -0.012187
-0.106875 -0.11 -0.012187
-0.106875 -0.11 -0.012695
-0.086836 -0.11 -0.012695
-0.086836 -0.11 -0.012187
-0.089062 -0.11 -0.012187
-0.089062 -0.11 -0.012695
-0.086836 -0.11 -0.008633
-0.086836 -0.11 -0.008125
-0.089062 -0.11 -0.008125
-0.089062 -0.11 -0.008633
-0.104649 -0.11 -0.00457
-0.104649 -0.11 -0.004062
-0.106875 -0.11 -0.004062
-0.106875 -0.11 -0.00457
-0.086836 -0.11 -0.00457
-0.086836 -0.11 -0.004062
-0.089062 -0.11 -0.004062
-0.089062 -0.11 -0.00457
-0.086836 -0.11 -0.000508
-0.086836 -0.11 0
-0.089062 -0.11 0
-0.089062 -0.11 -0.000508
0.002227 -0.11 -0.012695
0.002227 -0.11 -0.012187
0 -0.11 -0.012187
0 -0.11 -0.012695
0.020039 -0.11 -0.012695
0.020039 -0.11 -0.012187
0.017812 -0.11 -0.012187
0.017812 -0.11 -0.012695
0.020039 -0.11 -0.008633
0.020039 -0.11 -0.008125
0.017812 -0.11 -0.008125
0.017812 -0.11 -0.008633
0.037851 -0.11 -0.012695
0.037851 -0.11 -0.012187
0.035625 -0.11 -0.012187
0.035625 -0.11 -0.012695
0.055665 -0.11 -0.012695
0.055665 -0.11 -0.012187
0.053438 -0.11 -0.012187
0.053438 -0.11 -0.012695
0.055665 -0.11 -0.008633
0.055665 -0.11 -0.008125
0.053438 -0.11 -0.008125
0.053438 -0.11 -0.008633
0.037851 -0.11 -0.00457
0.037851 -0.11 -0.004062
0.035625 -0.11 -0.004062
0.035625 -0.11 -0.00457
0.055665 -0.11 -0.00457
0.055665 -0.11 -0.004062
0.053438 -0.11 -0.004062
0.053438 -0.11 -0.00457
0.055665 -0.11 -0.000508
0.055665 -0.11 0
0.053438 -0.11 0
0.053438 -0.11 -0.000508
0.002227 -0.11 0.019805
0.002227 -0.11 0.020312
0 -0.11 0.020312
0 -0.11 0.019805
0.020039 -0.11 0.019805
0.020039 -0.11 0.020312
0.017812 -0.11 0.020312
0.017812 -0.11 0.019805
0.020039 -0.11 0.023867
0.020039 -0.11 0.024375
0.017812 -0.11 0.024375
0.017812 -0.11 0.023867
0.037851 -0.11 0.019805
0.037851 -0.11 0.020312
0.035625 -0.11 0.020312
0.035625 -0.11 0.019805
0.055665 -0.11 0.019805
0.055665 -0.11 0.020312
0.053438 -0.11 0.020312
0.053438 -0.11 0.019805
0.055665 -0.11 0.023867
0.055665 -0.11 0.024375
0.053438 -0.11 0.024375
0.053438 -0.11 0.023867
0.037851 -0.11 0.027929
0.037851 -0.11 0.028437
0.035625 -0.11 0.028437
0.035625 -0.11 0.027929
0.055665 -0.11 0.027929
0.055665 -0.11 0.028437
0.053438 -0.11 0.028437
0.053438 -0.11 0.027929
0.055665 -0.11 0.031992
0.055665 -0.11 0.0325
0.053438 -0.11 0.0325
0.053438 -0.11 0.031992
-0.1425 0.108281 -0.012695
-0.1425 0.108281 -0.012187
-0.1425 0.11 -0.012187
-0.1425 0.11 -0.012695
-0.1425 0.094531 -0.012695
-0.1425 0.094531 -0.012187
-0.1425 0.09625 -0.012187
-0.1425 0.09625 -0.012695
-0.1425 0.094531 -0.008633
-0.1425 0.094531 -0.008125
-0.1425 0.09625 -0.008125
-0.1425 0.09625 -0.008633
-0.1425 0.080781 -0.012695
-0.1425 0.080781 -0.012187
-0.1425 0.0825 -0.012187
-0.1425 0.0825 -0.012695
-0.1425 0.067031 -0.012695
-0.1425 0.067031 -0.012187
-0.1425 0.06875 -0.012187
-0.1425 0.06875 -0.012695
-0.1425 0.067031 -0.008633
-0.1425 0.067031 -0.008125
-0.1425 0.06875 -0.008125
-0.1425 0.06875 -0.008633
-0.1425 0.080781 -0.00457
-0.1425 0.080781 -0.004062
-0.1425 0.0825 -0.004062
-0.1425 0.0825 -0.00457
-0.1425 0.067031 -0.00457
-0.1425 0.067031 -0.004062
-0.1425 0.06875 -0.004062
-0.1425 0.06875 -0.00457
-0.1425 0.067031 -0.000508
-0.1425 0.067031 0
-0.1425 0.06875 0
-0.1425 0.06875 -0.000508
-0.1425 -0.001719 -0.012695
-0.1425 -0.001719 -0.012187
-0.1425 0 -0.012187
-0.1425 0 -0.012695
-0.1425 -0.015468 -0.012695
-0.1425 -0.015468 -0.012187
-0.1425 -0.01375 -0.012187
-0.1425 -0.01375 -0.012695
-0.1425 -0.015468 -0.008633
-0.1425 -0.015468 -0.008125
-0.1425 -0.01375 -0.008125
-0.1425 -0.01375 -0.008633
-0.1425 -0.029218 -0.012695
-0.1425 -0.029218 -0.012187
-0.1425 -0.0275 -0.012187
-0.1425 -0.0275 -0.012695
-0.1425 -0.042969 -0.012695
-0.1425 -0.042969 -0.012187
-0.1425 -0.04125 -0.012187
-0.1425 -0.04125 -0.012695
-0.1425 -0.042969 -0.008633
-0.1425 -0.042969 -0.008125
-0.1425 -0.04125 -0.008125
-0.1425 -0.04125 -0.008633
-0.1425 -0.029218 -0.00457
-0.1425 -0.029218 -0.004062
-0.1425 -0.0275 -0.004062
-0.1425 -0.0275 -0.00457
-0.1425 -0.042969 -0.00457
-0.1425 -0.042969 -0.004062
-0.1425 -0.04125 -0.004062
-0.1425 -0.04125 -0.00457
-0.1425 -0.042969 -0.000508
-0.1425 -0.042969 0
-0.1425 -0.04125 0
-0.1425 -0.04125 -0.000508
-0.1425 -0.001719 0.019805
-0.1425 -0.001719 0.020312
-0.1425 0 0.020312
-0.1425 0 0.019805
-0.1425 -0.015468 0.019805
-0.1425 -0.015468 0.020312
-0.1425 -0.01375 0.020312
-0.1425 -0.01375 0.019805
-0.1425 -0.015468 0.023867
-0.1425 -0.015468 0.024375
-0.1425 -0.01375 0.024375
-0.1425 -0.01375 0.023867
-0.1425 -0.029218 0.019805
-0.1425 -0.029218 0.020312
-0.1425 -0.0275 0.020312
-0.1425 -0.0275 0.019805
-0.1425 -0.042969 0.019805
-0.1425 -0.042969 0.020312
-0.1425 -0.04125 0.020312
-0.1425 -0.04125 0.019805
-0.1425 -0.042969 0.023867
-0.1425 -0.042969 0.024375
-0.1425 -0.04125 0.024375
-0.1425 -0.04125 0.023867
-0.1425 -0.029218 0.027929
-0.1425 -0.029218 0.028437
-0.1425 -0.0275 0.028437
-0.1425 -0.0275 0.027929
-0.1425 -0.042969 0.027929
-0.1425 -0.042969 0.028437
-0.1425 -0.04125 0.028437
-0.1425 -0.04125 0.027929
-0.1425 -0.042969 0.031992
-0.1425 -0.042969 0.0325
-0.1425 -0.04125 0.0325
-0.1425 -0.04125 0.031992
-0.140273 0.11 0.012695
-0.140273 0.11 0.012187
-0.1425 0.11 0.012187
-0.1425 0.11 0.012695
-0.122461 0.11 0.012695
-0.122461 0.11 0.012187
-0.124688 0.11 0.012187
-0.124688 0.11 0.012695
-0.122461 0.11 0.008633
-0.122461 0.11 0.008125
-0.124688 0.11 0.008125
-0.124688 0.11 0.008633
-0.104649 0.11 0.012695
-0.104649 0.11 0.012187
-0.106875 0.11 0.012187
-0.106875 0.11 0.012695
-0.086836 0.11 0.012695
-0.086836 0.11 0.012187
-0.089062 0.11 0.012187
-0.089062 0.11 0.012695
-0.086836 0.11 0.008633
-0.086836 0.11 0.008125
-0.089062 0.11 0.008125
-0.089062 0.11 0.008633
-0.104649 0.11 0.00457
-0.104649 0.11 0.004062
-0.106875 0.11 0.004062
-0.106875 0.11 0.00457
-0.086836 0.11 0.00457
-0.086836 0.11 0.004062
-0.089062 0.11 0.004062
-0.089062 0.11 0.00457
-0.086836 0.11 0.000508
-0.086836 0.11 0
-0.089062 0.11 0
-0.089062 0.11 0.000508
0.002227 0.11 0.012695
0.002227 0.11 0.012187
0 0.11 0.012187
0 0.11 0.012695
0.020039 0.11 0.012695
0.020039 0.11 0.012187
0.017812 0.11 0.012187
0.017812 0.11 0.012695
0.020039 0.11 0.008633
0.020039 0.11 0.008125
0.017812 0.11 0.008125
0.017812 0.11 0.008633
0.037851 0.11 0.012695
0.037851 0.11 0.012187
0.035625 0.11 0.012187
0.035625 0.11 0.012695
0.055665 0.11 0.012695
0.055665 0.11 0.012187
0.053438 0.11 0.012187
0.053438 0.11 0.012695
0.055665 0.11 0.008633
0.055665 0.11 0.008125
0.053438 0.11 0.008125
0.053438 0.11 0.008633
0.037851 0.11 0.00457
0.037851 0.11 0.004062
0.035625 0.11 0.004062
0.035625 0.11 0.00457
0.055665 0.11 0.00457
0.055665 0.11 0.004062
0.053438 0.11 0.004062
0.053438 0.11 0.00457
0.055665 0.11 0.000508
0.055665 0.11 0
0.053438 0.11 0
0.053438 0.11 0.000508
0.002227 0.11 -0.019805
0.002227 0.11 -0.020312
0 0.11 -0.020312
0 0.11 -0.019805
0.020039 0.11 -0.019805
0.020039 0.11 -0.020312
0.017812 0.11 -0.020312
0.017812 0.11 -0.019805
0.020039 0.11 -0.023867
0.020039 0.11 -0.024375
0.017812 0.11 -0.024375
0.017812 0.11 -0.023867
0.037851 0.11 -0.019805
0.037851 0.11 -0.020312
0.035625 0.11 -0.020312
0.035625 0.11 -0.019805
0.055665 0.11 -0.019805
0.055665 0.11 -0.020312
0.053438 0.11 -0.020312
0.053438 0.11 -0.019805
0.055665 0.11 -0.023867
0.055665 0.11 -0.024375
0.053438 0.11 -0.024375
0.053438 0.11 -0.023867
0.037851 0.11 -0.027929
0.037851 0.11 -0.028437
0.035625 0.11 -0.028437
0.035625 0.11 -0.027929
0.055665 0.11 -0.027929
0.055665 0.11 -0.028437
0.053438 0.11 -0.028437
0.053438 0.11 -0.027929
0.055665 0.11 -0.031992
0.055665 0.11 -0.0325
0.053438 0.11 -0.0325
0.053438 0.11 -0.031992
-0.140273 0.042969 -0.0325
-0.140273 0.04125 -0.0325
-0.1425 0.04125 -0.0325
-0.1425 0.042969 -0.0325
-0.122461 0.042969 -0.0325
-0.122461 0.04125 -0.0325
-0.124688 0.04125 -0.0325
-0.124688 0.042969 -0.0325
-0.122461 0.029218 -0.0325
-0.122461 0.0275 -0.0325
-0.124688 0.0275 -0.0325
-0.124688 0.029218 -0.0325
-0.104649 0.042969 -0.0325
-0.104649 0.04125 -0.0325
-0.106875 0.04125 -0.0325
-0.106875 0.042969 -0.0325
-0.086836 0.042969 -0.0325
-0.086836 0.04125 -0.0325
-0.089062 0.04125 -0.0325
-0.089062 0.042969 -0.0325
-0.086836 0.029218 -0.0325
-0.086836 0.0275 -0.0325
-0.089062 0.0275 -0.0325
-0.089062 0.029218 -0.0325
-0.104649 0.015468 -0.0325
-0.104649 0.01375 -0.0325
-0.106875 0.01375 -0.0325
-0.106875 0.015468 -0.0325
-0.086836 0.015468 -0.0325
-0.086836 0.01375 -0.0325
-0.089062 0.01375 -0.0325
-0.089062 0.015468 -0.0325
-0.086836 0.001719 -0.0325
-0.086836 0 -0.0325
-0.089062 0 -0.0325
-0.089062 0.001719 -0.0325
0.002227 0.042969 -0.0325
0.002227 0.04125 -0.0325
0 0.04125 -0.0325
0 0.042969 -0.0325
0.020039 0.042969 -0.0325
0.020039 0.04125 -0.0325
0.017812 0.04125 -0.0325
0.017812 0.042969 -0.0325
0.020039 0.029218 -0.0325
0.020039 0.0275 -0.0325
0.017812 0.0275 -0.0325
0.017812 0.029218 -0.0325
0.037851 0.042969 -0.0325
0.037851 0.04125 -0.0325
0.035625 0.04125 -0.0325
0.035625 0.042969 -0.0325
0.055665 0.042969 -0.0325
0.055665 0.04125 -0.0325
0.053438 0.04125 -0.0325
0.053438 0.042969 -0.0325
0.055665 0.029218 -0.0325
0.055665 0.0275 -0.0325
0.053438 0.0275 -0.0325
0.053438 0.029218 -0.0325
0.037851 0.015468 -0.0325
0.037851 0.01375 -0.0325
0.035625 0.01375 -0.0325
0.035625 0.015468 -0.0325
0.055665 0.015468 -0.0325
0.055665 0.01375 -0.0325
0.053438 0.01375 -0.0325
0.053438 0.015468 -0.0325
0.055665 0.001719 -0.0325
0.055665 0 -0.0325
0.053438 0 -0.0325
0.053438 0.001719 -0.0325
0.002227 -0.067031 -0.0325
0.002227 -0.06875 -0.0325
0 -0.06875 -0.0325
0 -0.067031 -0.0325
0.020039 -0.067031 -0.0325
0.020039 -0.06875 -0.0325
0.017812 -0.06875 -0.0325
0.017812 -0.067031 -0.0325
0.020039 -0.080781 -0.0325
0.020039 -0.0825 -0.0325
0.017812 -0.0825 -0.0325
0.017812 -0.080781 -0.0325
0.037851 -0.067031 -0.0325
0.037851 -0.06875 -0.0325
0.035625 -0.06875 -0.0325
0.035625 -0.067031 -0.0325
0.055665 -0.067031 -0.0325
0.055665 -0.06875 -0.0325
0.053438 -0.06875 -0.0325
0.053438 -0.067031 -0.0325
0.055665 -0.080781 -0.0325
0.055665 -0.0825 -0.0325
0.053438 -0.0825 -0.0325
0.053438 -0.080781 -0.0325
0.037851 -0.094531 -0.0325
0.037851 -0.09625 -0.0325
0.035625 -0.09625 -0.0325
0.035625 -0.094531 -0.0325
0.055665 -0.094531 -0.0325
0.055665 -0.09625 -0.0325
0.053438 -0.09625 -0.0325
0.053438 -0.094531 -0.0325
0.055665 -0.108281 -0.0325
0.055665 -0.11 -0.0325
0.053438 -0.11 -0.0325
0.053438 -0.108281 -0.0325
-0.015586 -0.108281 0.0325
-0.017812 -0.108281 0.0325
-0.017812 -0.11 0.0325
-0.015586 -0.11 0.0325
-0.015586 -0.094531 0.0325
-0.017812 -0.094531 0.0325
-0.017812 -0.09625 0.0325
-0.015586 -0.09625 0.0325
-0.033399 -0.094531 0.0325
-0.035625 -0.094531 0.0325
-0.035625 -0.09625 0.0325
-0.033399 -0.09625 0.0325
-0.015586 -0.080781 0.0325
-0.017812 -0.080781 0.0325
-0.017812 -0.0825 0.0325
-0.015586 -0.0825 0.0325
-0.015586 -0.067031 0.0325
-0.017812 -0.067031 0.0325
-0.017812 -0.06875 0.0325
-0.015586 -0.06875 0.0325
-0.033399 -0.067031 0.0325
-0.035625 -0.067031 0.0325
-0.035625 -0.06875 0.0325
-0.033399 -0.06875 0.0325
-0.051211 -0.080781 0.0325
-0.053438 -0.080781 0.0325
-0.053438 -0.0825 0.0325
-0.051211 -0.0825 0.0325
-0.051211 -0.067031 0.0325
-0.053438 -0.067031 0.0325
-0.053438 -0.06875 0.0325
-0.051211 -0.06875 0.0325
-0.069024 -0.067031 0.0325
-0.07125 -0.067031 0.0325
-0.07125 -0.06875 0.0325
-0.069024 -0.06875 0.0325
-0.015586 -0.053281 0.0325
-0.017812 -0.053281 0.0325
-0.017812 -0.055 0.0325
-0.015586 -0.055 0.0325
-0.015586 -0.039531 0.0325
-0.017812 -0.039531 0.0325
-0.017812 -0.04125 0.0325
-0.015586 -0.04125 0.0325
-0.033399 -0.039531 0.0325
-0.035625 -0.039531 0.0325
-0.035625 -0.04125 0.0325
-0.033399 -0.04125 0.0325
-0.015586 -0.025781 0.0325
-0.017812 -0.025781 0.0325
-0.017812 -0.0275 0.0325
-0.015586 -0.0275 0.0325
-0.015586 -0.012031 0.0325
-0.017812 -0.012031 0.0325
-0.017812 -0.01375 0.0325
-0.015586 -0.01375 0.0325
-0.033399 -0.012031 0.0325
-0.035625 -0.012031 0.0325
-0.035625 -0.01375 0.0325
-0.033399 -0.01375 0.0325
-0.051211 -0.025781 0.0325
-0.053438 -0.025781 0.0325
-0.053438 -0.0275 0.0325
-0.051211 -0.0275 0.0325
-0.051211 -0.012031 0.0325
-0.053438 -0.012031 0.0325
-0.053438 -0.01375 0.0325
-0.051211 -0.01375 0.0325
-0.069024 -0.012031 0.0325
-0.07125 -0.012031 0.0325
-0.07125 -0.01375 0.0325
-0.069024 -0.01375 0.0325
-0.086836 -0.053281 0.0325
-0.089062 -0.053281 0.0325
-0.089062 -0.055 0.0325
-0.086836 -0.055 0.0325
-0.086836 -0.039531 0.0325
-0.089062 -0.039531 0.0325
-0.089062 -0.04125 0.0325
-0.086836 -0.04125 0.0325
-0.104649 -0.039531 0.0325
-0.106875 -0.039531 0.0325
-0.106875 -0.04125 0.0325
-0.104649 -0.04125 0.0325
-0.086836 -0.025781 0.0325
-0.089062 -0.025781 0.0325
-0.089062 -0.0275 0.0325
-0.086836 -0.0275 0.0325
-0.086836 -0.012031 0.0325
-0.089062 -0.012031 0.0325
-0.089062 -0.01375 0.0325
-0.086836 -0.01375 0.0325
-0.104649 -0.012031 0.0325
-0.106875 -0.012031 0.0325
-0.106875 -0.01375 0.0325
-0.104649 -0.01375 0.0325
-0.122461 -0.025781 0.0325
-0.124688 -0.025781 0.0325
-0.124688 -0.0275 0.0325
-0.122461 -0.0275 0.0325
-0.122461 -0.012031 0.0325
-0.124688 -0.012031 0.0325
-0.124688 -0.01375 0.0325
-0.122461 -0.01375 0.0325
-0.140273 -0.012031 0.0325
-0.1425 -0.012031 0.0325
-0.1425 -0.01375 0.0325
-0.140273 -0.01375 0.0325
0.1425 -0.108281 0.003555
0.1425 -0.108281 0.004062
0.1425 -0.11 0.004062
0.1425 -0.11 0.003555
0.1425 -0.094531 0.003555
0.1425 -0.094531 0.004062
0.1425 -0.09625 0.004062
0.1425 -0.09625 0.003555
0.1425 -0.094531 0.007617
0.1425 -0.094531 0.008125
0.1425 -0.09625 0.008125
0.1425 -0.09625 0.007617
0.1425 -0.080781 0.003555
0.1425 -0.080781 0.004062
0.1425 -0.0825 0.004062
0.1425 -0.0825 0.003555
0.1425 -0.067031 0.003555
0.1425 -0.067031 0.004062
0.1425 -0.06875 0.004062
0.1425 -0.06875 0.003555
0.1425 -0.067031 0.007617
0.1425 -0.067031 0.008125
0.1425 -0.06875 0.008125
0.1425 -0.06875 0.007617
0.1425 -0.080781 0.01168
0.1425 -0.080781 0.012187
0.1425 -0.0825 0.012187
0.1425 -0.0825 0.01168
0.1425 -0.067031 0.01168
0.1425 -0.067031 0.012187
0.1425 -0.06875 0.012187
0.1425 -0.06875 0.01168
0.1425 -0.067031 0.015742
0.1425 -0.067031 0.01625
0.1425 -0.06875 0.01625
0.1425 -0.06875 0.015742
0.1425 -0.053281 0.003555
0.1425 -0.053281 0.004062
0.1425 -0.055 0.004062
0.1425 -0.055 0.003555
0.1425 -0.039531 0.003555
0.1425 -0.039531 0.004062
0.1425 -0.04125 0.004062
0.1425 -0.04125 0.003555
0.1425 -0.039531 0.007617
0.1425 -0.039531 0.008125
0.1425 -0.04125 0.008125
0.1425 -0.04125 0.007617
0.1425 -0.025781 0.003555
0.1425 -0.025781 0.004062
0.1425 -0.0275 0.004062
0.1425 -0.0275 0.003555
0.1425 -0.012031 0.003555
0.1425 -0.012031 0.004062
0.1425 -0.01375 0.004062
0.1425 -0.01375 0.003555
0.1425 -0.012031 0.007617
0.1425 -0.012031 0.008125
0.1425 -0.01375 0.008125
0.1425 -0.01375 0.007617
0.1425 -0.025781 0.01168
0.1425 -0.025781 0.012187
0.1425 -0.0275 0.012187
0.1425 -0.0275 0.01168
0.1425 -0.012031 0.01168
0.1425 -0.012031 0.012187
0.1425 -0.01375 0.012187
0.1425 -0.01375 0.01168
0.1425 -0.012031 0.015742
0.1425 -0.012031 0.01625
0.1425 -0.01375 0.01625
0.1425 -0.01375 0.015742
0.1425 -0.053281 0.019805
0.1425 -0.053281 0.020312
0.1425 -0.055 0.020312
0.1425 -0.055 0.019805
0.1425 -0.039531 0.019805
0.1425 -0.039531 0.020312
0.1425 -0.04125 0.020312
0.1425 -0.04125 0.019805
0.1425 -0.039531 0.023867
0.1425 -0.039531 0.024375
0.1425 -0.04125 0.024375
0.1425 -0.04125 0.023867
0.1425 -0.025781 0.019805
0.1425 -0.025781 0.020312
0.1425 -0.0275 0.020312
0.1425 -0.0275 0.019805
0.1425 -0.012031 0.019805
0.1425 -0.012031 0.020312
0.1425 -0.01375 0.020312
0.1425 -0.01375 0.019805
0.1425 -0.012031 0.023867
0.1425 -0.012031 0.024375
0.1425 -0.01375 0.024375
0.1425 -0.01375 0.023867
0.1425 -0.025781 0.027929
0.1425 -0.025781 0.028437
0.1425 -0.0275 0.028437
0.1425 -0.0275 0.027929
0.1425 -0.012031 0.027929
0.1425 -0.012031 0.028437
0.1425 -0.01375 0.028437
0.1425 -0.01375 0.027929
0.1425 -0.012031 0.031992
0.1425 -0.012031 0.0325
0.1425 -0.01375 0.0325
0.1425 -0.01375 0.031992
-0.140273 -0.11 0.003555
-0.140273 -0.11 0.004062
-0.1425 -0.11 0.004062
-0.1425 -0.11 0.003555
-0.122461 -0.11 0.003555
-0.122461 -0.11 0.004062
-0.124688 -0.11 0.004062
-0.124688 -0.11 0.003555
-0.122461 -0.11 0.007617
-0.122461 -0.11 0.008125
-0.124688 -0.11 0.008125
-0.124688 -0.11 0.007617
-0.104649 -0.11 0.003555
-0.104649 -0.11 0.004062
-0.106875 -0.11 0.004062
-0.106875 -0.11 0.003555
-0.086836 -0.11 0.003555
-0.086836 -0.11 0.004062
-0.089062 -0.11 0.004062
-0.089062 -0.11 0.003555
-0.086836 -0.11 0.007617
-0.086836 -0.11 0.008125
-0.089062 -0.11 0.008125
-0.089062 -0.11 0.007617
-0.104649 -0.11 0.01168
-0.104649 -0.11 0.012187
-0.106875 -0.11 0.012187
-0.106875 -0.11 0.01168
-0.086836 -0.11 0.01168
-0.086836 -0.11 0.012187
-0.089062 -0.11 0.012187
-0.089062 -0.11 0.01168
-0.086836 -0.11 0.015742
-0.086836 -0.11 0.01625
-0.089062 -0.11 0.01625
-0.089062 -0.11 0.015742
-0.069024 -0.11 0.003555
-0.069024 -0.11 0.004062
-0.07125 -0.11 0.004062
-0.07125 -0.11 0.003555
-0.051211 -0.11 0.003555
-0.051211 -0.11 0.004062
-0.053438 -0.11 0.004062
-0.053438 -0.11 0.003555
-0.051211 -0.11 0.007617
-0.051211 -0.11 0.008125
-0.053438 -0.11 0.008125
-0.053438 -0.11 0.007617
-0.033399 -0.11 0.003555
-0.033399 -0.11 0.004062
-0.035625 -0.11 0.004062
-0.035625 -0.11 0.003555
-0.015586 -0.11 0.003555
-0.015586 -0.11 0.004062
-0.017812 -0.11 0.004062
-0.017812 -0.11 0.003555
-0.015586 -0.11 0.007617
-0.015586 -0.11 0.008125
-0.017812 -0.11 0.008125
-0.017812 -0.11 0.007617
-0.033399 -0.11 0.01168
-0.033399 -0.11 0.012187
-0.035625 -0.11 0.012187
-0.035625 -0.11 0.01168
-0.015586 -0.11 0.01168
-0.015586 -0.11 0.012187
-0.017812 -0.11 0.012187
-0.017812 -0.11 0.01168
-0.015586 -0.11 0.015742
-0.015586 -0.11 0.01625
-0.017812 -0.11 0.01625
-0.017812 -0.11 0.015742
-0.069024 -0.11 0.019805
-0.069024 -0.11 0.020312
-0.07125 -0.11 0.020312
-0.07125 -0.11 0.019805
-0.051211 -0.11 0.019805
-0.051211 -0.11 0.020312
-0.053438 -0.11 0.020312
-0.053438 -0.11 0.019805
-0.051211 -0.11 0.023867
-0.051211 -0.11 0.024375
-0.053438 -0.11 0.024375
-0.053438 -0.11 0.023867
-0.033399 -0.11 0.019805
-0.033399 -0.11 0.020312
-0.035625 -0.11 0.020312
-0.035625 -0.11 0.019805
-0.015586 -0.11 0.019805
-0.015586 -0.11 0.020312
-0.017812 -0.11 0.020312
-0.017812 -0.11 0.019805
-0.015586 -0.11 0.023867
-0.015586 -0.11 0.024375
-0.017812 -0.11 0.024375
-0.017812 -0.11 0.023867
-0.033399 -0.11 0.027929
-0.033399 -0.11 0.028437
-0.035625 -0.11 0.028437
-0.035625 -0.11 0.027929
-0.015586 -0.11 0.027929
-0.015586 -0.11 0.028437
-0.017812 -0.11 0.028437
-0.017812 -0.11 0.027929
-0.015586 -0.11 0.031992
-0.015586 -0.11 0.0325
-0.017812 -0.11 0.0325
-0.017812 -0.11 0.031992
-0.1425 0.108281 0.003555
-0.1425 0.108281 0.004062
-0.1425 0.11 0.004062
-0.1425 0.11 0.003555
-0.1425 0.094531 0.003555
-0.1425 0.094531 0.004062
-0.1425 0.09625 0.004062
-0.1425 0.09625 0.003555
-0.1425 0.094531 0.007617
-0.1425 0.094531 0.008125
-0.1425 0.09625 0.008125
-0.1425 0.09625 0.007617
-0.1425 0.080781 0.003555
-0.1425 0.080781 0.004062
-0.1425 0.0825 0.004062
-0.1425 0.0825 0.003555
-0.1425 0.067031 0.003555
-0.1425 0.067031 0.004062
-0.1425 0.06875 0.004062
-0.1425 0.06875 0.003555
-0.1425 0.067031 0.007617
-0.1425 0.067031 0.008125
-0.1425 0.06875 0.008125
-0.1425 0.06875 0.007617
-0.1425 0.080781 0.01168
-0.1425 0.080781 0.012187
-0.1425 0.0825 0.012187
-0.1425 0.0825 0.01168
-0.1425 0.067031 0.01168
-0.1425 0.067031 0.012187
-0.1425 0.06875 0.012187
-0.1425 0.06875 0.01168
-0.1425 0.067031 0.015742
-0.1425 0.067031 0.01625
-0.1425 0.06875 0.01625
-0.1425 0.06875 0.015742
-0.1425 0.053281 0.003555
-0.1425 0.053281 0.004062
-0.1425 0.055 0.004062
-0.1425 0.055 0.003555
-0.1425 0.039531 0.003555
-0.1425 0.039531 0.004062
-0.1425 0.04125 0.004062
-0.1425 0.04125 0.003555
-0.1425 0.039531 0.007617
-0.1425 0.039531 0.008125
-0.1425 0.04125 0.008125
-0.1425 0.04125 0.007617
-0.1425 0.025781 0.003555
-0.1425 0.025781 0.004062
-0.1425 0.0275 0.004062
-0.1425 0.0275 0.003555
-0.1425 0.012031 0.003555
-0.1425 0.012031 0.004062
-0.1425 0.01375 0.004062
-0.1425 0.01375 0.003555
-0.1425 0.012031 0.007617
-0.1425 0.012031 0.008125
-0.1425 0.01375 0.008125
-0.1425 0.01375 0.007617
-0.1425 0.025781 0.01168
-0.1425 0.025781 0.012187
-0.1425 0.0275 0.012187
-0.1425 0.0275 0.01168
-0.1425 0.012031 0.01168
-0.1425 0.012031 0.012187
-0.1425 0.01375 0.012187
-0.1425 0.01375 0.01168
-0.1425 0.012031 0.015742
-0.1425 0.012031 0.01625
-0.1425 0.01375 0.01625
-0.1425 0.01375 0.015742
-0.1425 0.053281 0.019805
-0.1425 0.053281 0.020312
-0.1425 0.055 0.020312
-0.1425 0.055 0.019805
-0.1425 0.039531 0.019805
-0.1425 0.039531 0.020312
-0.1425 0.04125 0.020312
-0.1425 0.04125 0.019805
-0.1425 0.039531 0.023867
-0.1425 0.039531 0.024375
-0.1425 0.04125 0.024375
-0.1425 0.04125 0.023867
-0.1425 0.025781 0.019805
-0.1425 0.025781 0.020312
-0.1425 0.0275 0.020312
-0.1425 0.0275 0.019805
-0.1425 0.012031 0.019805
-0.1425 0.012031 0.020312
-0.1425 0.01375 0.020312
-0.1425 0.01375 0.019805
-0.1425 0.012031 0.023867
-0.1425 0.012031 0.024375
-0.1425 0.01375 0.024375
-0.1425 0.01375 0.023867
-0.1425 0.025781 0.027929
-0.1425 0.025781 0.028437
-0.1425 0.0275 0.028437
-0.1425 0.0275 0.027929
-0.1425 0.012031 0.027929
-0.1425 0.012031 0.028437
-0.1425 0.01375 0.028437
-0.1425 0.01375 0.027929
-0.1425 0.012031 0.031992
-0.1425 0.012031 0.0325
-0.1425 0.01375 0.0325
-0.1425 0.01375 0.031992
-0.140273 0.11 -0.003555
-0.140273 0.11 -0.004062
-0.1425 0.11 -0.004062
-0.1425 0.11 -0.003555
-0.122461 0.11 -0.003555
-0.122461 0.11 -0.004062
-0.124688 0.11 -0.004062
-0.124688 0.11 -0.003555
-0.122461 0.11 -0.007617
-0.122461 0.11 -0.008125
-0.124688 0.11 -0.008125
-0.124688 0.11 -0.007617
-0.104649 0.11 -0.003555
-0.104649 0.11 -0.004062
-0.106875 0.11 -0.004062
-0.106875 0.11 -0.003555
-0.086836 0.11 -0.003555
-0.086836 0.11 -0.004062
-0.089062 0.11 -0.004062
-0.089062 0.11 -0.003555
-0.086836 0.11 -0.007617
-0.086836 0.11 -0.008125
-0.089062 0.11 -0.008125
-0.089062 0.11 -0.007617
-0.104649 0.11 -0.01168
-0.104649 0.11 -0.012187
-0.106875 0.11 -0.012187
-0.106875 0.11 -0.01168
-0.086836 0.11 -0.01168
-0.086836 0.11 -0.012187
-0.089062 0.11 -0.012187
-0.089062 0.11 -0.01168
-0.086836 0.11 -0.015742
-0.086836 0.11 -0.01625
-0.089062 0.11 -0.01625
-0.089062 0.11 -0.015742
-0.069024 0.11 -0.003555
-0.069024 0.11 -0.004062
-0.07125 0.11 -0.004062
-0.07125 0.11 -0.003555
-0.051211 0.11 -0.003555
-0.051211 0.11 -0.004062
-0.053438 0.11 -0.004062
-0.053438 0.11 -0.003555
-0.051211 0.11 -0.007617
-0.051211 0.11 -0.008125
-0.053438 0.11 -0.008125
-0.053438 0.11 -0.007617
-0.033399 0.11 -0.003555
-0.033399 0.11 -0.004062
-0.035625 0.11 -0.004062
-0.035625 0.11 -0.003555
-0.015586 0.11 -0.003555
-0.015586 0.11 -0.004062
-0.017812 0.11 -0.004062
-0.017812 0.11 -0.003555
-0.015586 0.11 -0.007617
-0.015586 0.11 -0.008125
-0.017812 0.11 -0.008125
-0.017812 0.11 -0.007617
-0.033399 0.11 -0.01168
-0.033399 0.11 -0.012187
-0.035625 0.11 -0.012187
-0.035625 0.11 -0.01168
-0.015586 0.11 -0.01168
-0.015586 0.11 -0.012187
-0.017812 0.11 -0.012187
-0.017812 0.11 -0.01168
-0.015586 0.11 -0.015742
-0.015586 0.11 -0.01625
-0.017812 0.11 -0.01625
-0.017812 0.11 -0.015742
-0.069024 0.11 -0.019805
-0.069024 0.11 -0.020312
-0.07125 0.11 -0.020312
-0.07125 0.11 -0.019805
-0.051211 0.11 -0.019805
-0.051211 0.11 -0.020312
-0.053438 0.11 -0.020312
-0.053438 0.11 -0.019805
-0.051211 0.11 -0.023867
-0.051211 0.11 -0.024375
-0.053438 0.11 -0.024375
-0.053438 0.11 -0.023867
-0.033399 0.11 -0.019805
-0.033399 0.11 -0.020312
-0.035625 0.11 -0.020312
-0.035625 0.11 -0.019805
-0.015586 0.11 -0.019805
-0.015586 0.11 -0.020312
-0.017812 0.11 -0.020312
-0.017812 0.11 -0.019805
-0.015586 0.11 -0.023867
-0.015586 0.11 -0.024375
-0.017812 0.11 -0.024375
-0.017812 0.11 -0.023867
-0.033399 0.11 -0.027929
-0.033399 0.11 -0.028437
-0.035625 0.11 -0.028437
-0.035625 0.11 -0.027929
-0.015586 0.11 -0.027929
-0.015586 0.11 -0.028437
-0.017812 0.11 -0.028437
-0.017812 0.11 -0.027929
-0.015586 0.11 -0.031992
-0.015586 0.11 -0.0325
-0.017812 0.11 -0.0325
-0.017812 0.11 -0.031992
-0.140273 -0.012031 -0.0325
-0.140273 -0.01375 -0.0325
-0.1425 -0.01375 -0.0325
-0.1425 -0.012031 -0.0325
-0.122461 -0.012031 -0.0325
-0.122461 -0.01375 -0.0325
-0.124688 -0.01375 -0.0325
-0.124688 -0.012031 -0.0325
-0.122461 -0.025781 -0.0325
-0.122461 -0.0275 -0.0325
-0.124688 -0.0275 -0.0325
-0.124688 -0.025781 -0.0325
-0.104649 -0.012031 -0.0325
-0.104649 -0.01375 -0.0325
-0.106875 -0.01375 -0.0325
-0.106875 -0.012031 -0.0325
-0.086836 -0.012031 -0.0325
-0.086836 -0.01375 -0.0325
-0.089062 -0.01375 -0.0325
-0.089062 -0.012031 -0.0325
-0.086836 -0.025781 -0.0325
-0.086836 -0.0275 -0.0325
-0.089062 -0.0275 -0.0325
-0.089062 -0.025781 -0.0325
-0.104649 -0.039531 -0.0325
-0.104649 -0.04125 -0.0325
-0.106875 -0.04125 -0.0325
-0.106875 -0.039531 -0.0325
-0.086836 -0.039531 -0.0325
-0.086836 -0.04125 -0.0325
-0.089062 -0.04125 -0.0325
-0.089062 -0.039531 -0.0325
-0.086836 -0.053281 -0.0325
-0.086836 -0.055 -0.0325
-0.089062 -0.055 -0.0325
-0.089062 -0.053281 -0.0325
-0.069024 -0.012031 -0.0325
-0.069024 -0.01375 -0.0325
-0.07125 -0.01375 -0.0325
-0.07125 -0.012031 -0.0325
-0.051211 -0.012031 -0.0325
-0.051211 -0.01375 -0.0325
-0.053438 -0.01375 -0.0325
-0.053438 -0.012031 -0.0325
-0.051211 -0.025781 -0.0325
-0.051211 -0.0275 -0.0325
-0.053438 -0.0275 -0.0325
-0.053438 -0.025781 -0.0325
-0.033399 -0.012031 -0.0325
-0.033399 -0.01375 -0.0325
-0.035625 -0.01375 -0.0325
-0.035625 -0.012031 -0.0325
-0.015586 -0.012031 -0.0325
-0.015586 -0.01375 -0.0325
-0.017812 -0.01375 -0.0325
-0.017812 -0.012031 -0.0325
-0.015586 -0.025781 -0.0325
-0.015586 -0.0275 -0.0325
-0.017812 -0.0275 -0.0325
-0.017812 -0.025781 -0.0325
-0.033399 -0.039531 -0.0325
-0.033399 -0.04125 -0.0325
-0.035625 -0.04125 -0.0325
-0.035625 -0.039531 -0.0325
-0.015586 -0.039531 -0.0325
-0.015586 -0.04125 -0.0325
-0.017812 -0.04125 -0.0325
-0.017812 -0.039531 -0.0325
-0.015586 -0.053281 -0.0325
-0.015586 -0.055 -0.0325
-0.017812 -0.055 -0.0325
-0.017812 -0.053281 -0.0325
-0.069024 -0.067031 -0.0325
-0.069024 -0.06875 -0.0325
-0.07125 -0.06875 -0.0325
-0.07125 -0.067031 -0.0325
-0.051211 -0.067031 -0.0325
-0.051211 -0.06875 -0.0325
-0.053438 -0.06875 -0.0325
-0.053438 -0.067031 -0.0325
-0.051211 -0.080781 -0.0325
-0.051211 -0.0825 -0.0325
-0.053438 -0.0825 -0.0325
-0.053438 -0.080781 -0.0325
-0.033399 -0.067031 -0.0325
-0.033399 -0.06875 -0.0325
-0.035625 -0.06875 -0.0325
-0.035625 -0.067031 -0.0325
-0.015586 -0.067031 -0.0325
-0.015586 -0.06875 -0.0325
-0.017812 -0.06875 -0.0325
-0.017812 -0.067031 -0.0325
-0.015586 -0.080781 -0.0325
-0.015586 -0.0825 -0.0325
-0.017812 -0.0825 -0.0325
-0.017812 -0.080781 -0.0325
-0.033399 -0.094531 -0.0325
-0.033399 -0.09625 -0.0325
-0.035625 -0.09625 -0.0325
-0.035625 -0.094531 -0.0325
-0.015586 -0.094531 -0.0325
-0.015586 -0.09625 -0.0325
-0.017812 -0.09625 -0.0325
-0.017812 -0.094531 -0.0325
-0.015586 -0.108281 -0.0325
-0.015586 -0.11 -0.0325
-0.017812 -0.11 -0.0325
-0.017812 -0.108281 -0.0325
0.126915 -0.108281 0.0325
0.124688 -0.108281 0.0325
0.124688 -0.11 0.0325
0.126915 -0.11 0.0325
0.126915 -0.094531 0.0325
0.124688 -0.094531 0.0325
0.124688 -0.09625 0.0325
0.126915 -0.09625 0.0325
0.109102 -0.094531 0.0325
0.106875 -0.094531 0.0325
0.106875 -0.09625 0.0325
0.109102 -0.09625 0.0325
0.126915 -0.080781 0.0325
0.124688 -0.080781 0.0325
0.124688 -0.0825 0.0325
0.126915 -0.0825 0.0325
0.126915 -0.067031 0.0325
0.124688 -0.067031 0.0325
0.124688 -0.06875 0.0325
0.126915 -0.06875 0.0325
0.109102 -0.067031 0.0325
0.106875 -0.067031 0.0325
0.106875 -0.06875 0.0325
0.109102 -0.06875 0.0325
0.091289 -0.080781 0.0325
0.089062 -0.080781 0.0325
0.089062 -0.0825 0.0325
0.091289 -0.0825 0.0325
0.091289 -0.067031 0.0325
0.089062 -0.067031 0.0325
0.089062 -0.06875 0.0325
0.091289 -0.06875 0.0325
0.073477 -0.067031 0.0325
0.07125 -0.067031 0.0325
0.07125 -0.06875 0.0325
0.073477 -0.06875 0.0325
0.126915 -0.053281 0.0325
0.124688 -0.053281 0.0325
0.124688 -0.055 0.0325
0.126915 -0.055 0.0325
0.126915 -0.039531 0.0325
0.124688 -0.039531 0.0325
0.124688 -0.04125 0.0325
0.126915 -0.04125 0.0325
0.109102 -0.039531 0.0325
0.106875 -0.039531 0.0325
0.106875 -0.04125 0.0325
0.109102 -0.04125 0.0325
0.126915 -0.025781 0.0325
0.124688 -0.025781 0.0325
0.124688 -0.0275 0.0325
0.126915 -0.0275 0.0325
0.126915 -0.012031 0.0325
0.124688 -0.012031 0.0325
0.124688 -0.01375 0.0325
0.126915 -0.01375 0.0325
0.109102 -0.012031 0.0325
0.106875 -0.012031 0.0325
0.106875 -0.01375 0.0325
0.109102 -0.01375 0.0325
0.091289 -0.025781 0.0325
0.089062 -0.025781 0.0325
0.089062 -0.0275 0.0325
0.091289 -0.0275 0.0325
0.091289 -0.012031 0.0325
0.089062 -0.012031 0.0325
0.089062 -0.01375 0.0325
0.091289 -0.01375 0.0325
0.073477 -0.012031 0.0325
0.07125 -0.012031 0.0325
0.07125 -0.01375 0.0325
0.073477 -0.01375 0.0325
0.055665 -0.053281 0.0325
0.053438 -0.053281 0.0325
0.053438 -0.055 0.0325
0.055665 -0.055 0.0325
0.055665 -0.039531 0.0325
0.053438 -0.039531 0.0325
0.053438 -0.04125 0.0325
0.055665 -0.04125 0.0325
0.037851 -0.039531 0.0325
0.035625 -0.039531 0.0325
0.035625 -0.04125 0.0325
0.037851 -0.04125 0.0325
0.055665 -0.025781 0.0325
0.053438 -0.025781 0.0325
0.053438 -0.0275 0.0325
0.055665 -0.0275 0.0325
0.055665 -0.012031 0.0325
0.053438 -0.012031 0.0325
0.053438 -0.01375 0.0325
0.055665 -0.01375 0.0325
0.037851 -0.012031 0.0325
0.035625 -0.012031 0.0325
0.035625 -0.01375 0.0325
0.037851 -0.01375 0.0325
0.020039 -0.025781 0.0325
0.017812 -0.025781 0.0325
0.017812 -0.0275 0.0325
0.020039 -0.0275 0.0325
0.020039 -0.012031 0.0325
0.017812 -0.012031 0.0325
0.017812 -0.01375 0.0325
0.020039 -0.01375 0.0325
0.002227 -0.012031 0.0325
0 -0.012031 0.0325
0 -0.01375 0.0325
0.002227 -0.01375 0.0325
0.126915 0.001719 0.0325
0.124688 0.001719 0.0325
0.124688 0 0.0325
0.126915 0 0.0325
0.126915 0.015468 0.0325
0.124688 0.015468 0.0325
0.124688 0.01375 0.0325
0.126915 0.01375 0.0325
0.109102 0.015468 0.0325
0.106875 0.015468 0.0325
0.106875 0.01375 0.0325
0.109102 0.01375 0.0325
0.126915 0.029218 0.0325
0.124688 0.029218 0.0325
0.124688 0.0275 0.0325
